ply
format ascii 1.0
comment Author: CloudCompare (TELECOM PARISTECH/EDF R&D)
obj_info Generated by CloudCompare!
element vertex 1595
property float x
property float y
property float z
property float scalar_Coord._Z
end_header
4.972 4.636 0.052351 0.052351 
4.972 4.64 0.052351 0.052351 
4.972 4.644 0.052439 0.052439 
4.972 4.648 0.052595 0.052595 
4.972 4.652 0.05279 0.05279 
4.972 4.656 0.053025 0.053025 
4.972 4.66 0.053284 0.053284 
4.972 4.664 0.053573 0.053573 
4.972 4.668 0.053858 0.053858 
4.972 4.672 0.054118 0.054118 
4.972 4.676 0.054346 0.054346 
4.972 4.68 0.054535 0.054535 
4.972 4.684 0.054667 0.054667 
4.972 4.688 0.054714 0.054714 
4.972 4.692 0.054675 0.054675 
4.972 4.696 0.054578 0.054578 
4.972 4.7 0.054471 0.054471 
4.972 4.704 0.054388 0.054388 
4.972 4.708 0.054347 0.054347 
4.972 4.712 0.054323 0.054323 
4.972 4.716 0.054336 0.054336 
4.972 4.72 0.054355 0.054355 
4.972 4.724 0.054382 0.054382 
4.972 4.728 0.054385 0.054385 
4.972 4.732 0.054378 0.054378 
4.972 4.736 0.054395 0.054395 
4.972 4.74 0.054455 0.054455 
4.972 4.744 0.054539 0.054539 
4.972 4.748 0.054616 0.054616 
4.972 4.752 0.054647 0.054647 
4.972 4.756 0.054625 0.054625 
4.972 4.76 0.054536 0.054536 
4.972 4.764 0.054417 0.054417 
4.972 4.768 0.054272 0.054272 
4.972 4.772 0.054105 0.054105 
4.972 4.776 0.053943 0.053943 
4.972 4.78 0.053807 0.053807 
4.972 4.784 0.053726 0.053726 
4.972 4.788 0.053689 0.053689 
4.972 4.792 0.053701 0.053701 
4.972 4.796 0.053735 0.053735 
4.972 4.8 0.053772 0.053772 
4.972 4.804 0.053781 0.053781 
4.972 4.808 0.05377 0.05377 
4.972 4.812 0.053704 0.053704 
4.972 4.816 0.053632 0.053632 
4.972 4.82 0.053578 0.053578 
4.972 4.824 0.053615 0.053615 
4.972 4.828 0.053734 0.053734 
4.972 4.832 0.053916 0.053916 
4.972 4.836 0.054065 0.054065 
4.972 4.84 0.054124 0.054124 
4.972 4.844 0.054043 0.054043 
4.972 4.848 0.053866 0.053866 
4.972 4.852 0.053565 0.053565 
4.972 4.856 0.053182 0.053182 
4.972 4.86 0.052742 0.052742 
4.972 4.864 0.052354 0.052354 
4.972 4.868 0.052061 0.052061 
4.972 4.872 0.051908 0.051908 
4.972 4.876 0.051893 0.051893 
4.972 4.88 0.052044 0.052044 
4.972 4.884 0.052342 0.052342 
4.972 4.888 0.052775 0.052775 
4.972 4.892 0.053279 0.053279 
4.972 4.896 0.053832 0.053832 
4.972 4.9 0.054388 0.054388 
4.972 4.904 0.054922 0.054922 
4.972 4.908 0.055384 0.055384 
4.972 4.912 0.055751 0.055751 
4.972 4.916 0.056023 0.056023 
4.972 4.92 0.056219 0.056219 
4.972 4.924 0.056328 0.056328 
4.972 4.928 0.056363 0.056363 
4.972 4.932 0.056363 0.056363 
4.972 4.936 0.056377 0.056377 
4.972 4.94 0.056395 0.056395 
4.972 4.944 0.056394 0.056394 
4.972 4.948 0.056358 0.056358 
4.972 4.952 0.056303 0.056303 
4.972 4.956 0.056246 0.056246 
4.972 4.96 0.056208 0.056208 
4.972 4.964 0.056176 0.056176 
4.972 4.968 0.056161 0.056161 
4.972 4.972 0.056164 0.056164 
4.972 4.976 0.056181 0.056181 
4.972 4.98 0.056189 0.056189 
4.972 4.984 0.056159 0.056159 
4.972 4.988 0.056093 0.056093 
4.972 4.992 0.055994 0.055994 
4.972 4.996 0.055927 0.055927 
4.972 5 0.055924 0.055924 
4.972 5.004 0.056006 0.056006 
4.972 5.008 0.056146 0.056146 
4.972 5.012 0.056299 0.056299 
4.972 5.016 0.05644 0.05644 
4.972 5.02 0.056553 0.056553 
4.972 5.024 0.056618 0.056618 
4.972 5.028 0.056628 0.056628 
4.972 5.032 0.056618 0.056618 
4.976 4.292 0.050788 0.050788 
4.976 4.296 0.050753 0.050753 
4.976 4.3 0.050817 0.050817 
4.976 4.304 0.050949 0.050949 
4.976 4.308 0.051121 0.051121 
4.976 4.312 0.051246 0.051246 
4.976 4.316 0.051274 0.051274 
4.976 4.32 0.051208 0.051208 
4.976 4.324 0.051032 0.051032 
4.976 4.328 0.050822 0.050822 
4.976 4.332 0.050579 0.050579 
4.976 4.336 0.050386 0.050386 
4.976 4.34 0.050289 0.050289 
4.976 4.344 0.050307 0.050307 
4.976 4.348 0.050443 0.050443 
4.976 4.352 0.050657 0.050657 
4.976 4.356 0.050888 0.050888 
4.976 4.36 0.051122 0.051122 
4.976 4.364 0.051317 0.051317 
4.976 4.368 0.051505 0.051505 
4.976 4.372 0.051636 0.051636 
4.976 4.376 0.051729 0.051729 
4.976 4.38 0.051816 0.051816 
4.976 4.384 0.051946 0.051946 
4.976 4.388 0.052146 0.052146 
4.976 4.392 0.052412 0.052412 
4.976 4.396 0.052708 0.052708 
4.976 4.4 0.053035 0.053035 
4.976 4.404 0.053351 0.053351 
4.976 4.408 0.053653 0.053653 
4.976 4.412 0.053902 0.053902 
4.976 4.416 0.054126 0.054126 
4.976 4.42 0.054349 0.054349 
4.976 4.424 0.054574 0.054574 
4.976 4.428 0.054794 0.054794 
4.976 4.432 0.054978 0.054978 
4.976 4.436 0.055119 0.055119 
4.976 4.44 0.055206 0.055206 
4.976 4.444 0.055283 0.055283 
4.976 4.448 0.055391 0.055391 
4.976 4.452 0.055568 0.055568 
4.976 4.456 0.05582 0.05582 
4.976 4.46 0.05613 0.05613 
4.976 4.464 0.056433 0.056433 
4.976 4.468 0.056678 0.056678 
4.976 4.472 0.056811 0.056811 
4.976 4.476 0.056811 0.056811 
4.976 4.48 0.056676 0.056676 
4.976 4.484 0.056467 0.056467 
4.976 4.488 0.056213 0.056213 
4.976 4.492 0.055943 0.055943 
4.976 4.496 0.055675 0.055675 
4.976 4.5 0.055484 0.055484 
4.976 4.504 0.055382 0.055382 
4.976 4.508 0.055367 0.055367 
4.976 4.512 0.055423 0.055423 
4.976 4.516 0.055558 0.055558 
4.976 4.52 0.055761 0.055761 
4.976 4.524 0.055976 0.055976 
4.976 4.528 0.05615 0.05615 
4.976 4.532 0.056262 0.056262 
4.976 4.536 0.056326 0.056326 
4.976 4.54 0.05637 0.05637 
4.976 4.544 0.056366 0.056366 
4.976 4.548 0.056276 0.056276 
4.976 4.552 0.056098 0.056098 
4.976 4.556 0.055863 0.055863 
4.976 4.56 0.055577 0.055577 
4.976 4.564 0.055258 0.055258 
4.976 4.568 0.054953 0.054953 
4.976 4.572 0.054739 0.054739 
4.976 4.576 0.054628 0.054628 
4.976 4.58 0.054591 0.054591 
4.976 4.584 0.0546 0.0546 
4.976 4.588 0.05458 0.05458 
4.976 4.592 0.054527 0.054527 
4.976 4.596 0.054418 0.054418 
4.976 4.6 0.054275 0.054275 
4.976 4.604 0.054103 0.054103 
4.976 4.608 0.053913 0.053913 
4.976 4.612 0.053732 0.053732 
4.976 4.616 0.053543 0.053543 
4.976 4.62 0.053339 0.053339 
4.976 4.624 0.053154 0.053154 
4.976 4.628 0.052987 0.052987 
4.976 4.632 0.05289 0.05289 
4.976 4.636 0.05286 0.05286 
4.976 4.64 0.052924 0.052924 
4.976 4.644 0.053042 0.053042 
4.976 4.648 0.053193 0.053193 
4.976 4.652 0.053351 0.053351 
4.976 4.656 0.053505 0.053505 
4.976 4.66 0.053624 0.053624 
4.976 4.664 0.053738 0.053738 
4.976 4.668 0.053844 0.053844 
4.976 4.672 0.053966 0.053966 
4.976 4.676 0.054082 0.054082 
4.976 4.68 0.054173 0.054173 
4.976 4.684 0.05421 0.05421 
4.976 4.688 0.05418 0.05418 
4.976 4.692 0.054096 0.054096 
4.976 4.696 0.053983 0.053983 
4.976 4.7 0.053861 0.053861 
4.976 4.704 0.053783 0.053783 
4.976 4.708 0.053773 0.053773 
4.976 4.712 0.053841 0.053841 
4.976 4.716 0.053934 0.053934 
4.976 4.72 0.053999 0.053999 
4.976 4.724 0.054031 0.054031 
4.976 4.728 0.054057 0.054057 
4.976 4.732 0.054126 0.054126 
4.976 4.736 0.054263 0.054263 
4.976 4.74 0.054449 0.054449 
4.976 4.744 0.054651 0.054651 
4.976 4.748 0.054802 0.054802 
4.976 4.752 0.054867 0.054867 
4.976 4.756 0.054791 0.054791 
4.976 4.76 0.054599 0.054599 
4.976 4.764 0.054378 0.054378 
4.976 4.768 0.054203 0.054203 
4.976 4.772 0.054096 0.054096 
4.976 4.776 0.054049 0.054049 
4.976 4.78 0.054045 0.054045 
4.976 4.784 0.054095 0.054095 
4.976 4.788 0.054184 0.054184 
4.976 4.792 0.054319 0.054319 
4.976 4.796 0.054471 0.054471 
4.976 4.8 0.054606 0.054606 
4.976 4.804 0.054713 0.054713 
4.976 4.808 0.054772 0.054772 
4.976 4.812 0.054755 0.054755 
4.976 4.816 0.054652 0.054652 
4.976 4.82 0.0545 0.0545 
4.976 4.824 0.054374 0.054374 
4.976 4.828 0.054321 0.054321 
4.976 4.832 0.054322 0.054322 
4.976 4.836 0.054329 0.054329 
4.976 4.84 0.054267 0.054267 
4.976 4.844 0.054147 0.054147 
4.976 4.848 0.053979 0.053979 
4.976 4.852 0.053755 0.053755 
4.976 4.856 0.053469 0.053469 
4.976 4.86 0.053118 0.053118 
4.976 4.864 0.052742 0.052742 
4.976 4.868 0.052371 0.052371 
4.976 4.872 0.052049 0.052049 
4.976 4.876 0.05183 0.05183 
4.976 4.88 0.051748 0.051748 
4.976 4.884 0.051844 0.051844 
4.976 4.888 0.052125 0.052125 
4.976 4.892 0.052554 0.052554 
4.976 4.896 0.053072 0.053072 
4.976 4.9 0.053596 0.053596 
4.976 4.904 0.054073 0.054073 
4.976 4.908 0.054474 0.054474 
4.976 4.912 0.054784 0.054784 
4.976 4.916 0.054988 0.054988 
4.976 4.92 0.055077 0.055077 
4.976 4.924 0.055064 0.055064 
4.976 4.928 0.054992 0.054992 
4.976 4.932 0.054896 0.054896 
4.976 4.936 0.054816 0.054816 
4.976 4.94 0.054775 0.054775 
4.976 4.944 0.0548 0.0548 
4.976 4.948 0.054922 0.054922 
4.976 4.952 0.055127 0.055127 
4.976 4.956 0.05539 0.05539 
4.976 4.96 0.055677 0.055677 
4.976 4.964 0.055968 0.055968 
4.976 4.968 0.056259 0.056259 
4.976 4.972 0.056533 0.056533 
4.976 4.976 0.05678 0.05678 
4.976 4.98 0.056978 0.056978 
4.976 4.984 0.05711 0.05711 
4.976 4.988 0.057174 0.057174 
4.976 4.992 0.057138 0.057138 
4.976 4.996 0.057022 0.057022 
4.976 5 0.056827 0.056827 
4.976 5.004 0.056626 0.056626 
4.976 5.008 0.056465 0.056465 
4.976 5.012 0.056381 0.056381 
4.976 5.016 0.056386 0.056386 
4.976 5.02 0.056468 0.056468 
4.976 5.024 0.056615 0.056615 
4.976 5.028 0.056784 0.056784 
4.976 5.032 0.056965 0.056965 
4.98 4.292 0.051559 0.051559 
4.98 4.296 0.051637 0.051637 
4.98 4.3 0.05171 0.05171 
4.98 4.304 0.051791 0.051791 
4.98 4.308 0.051851 0.051851 
4.98 4.312 0.051822 0.051822 
4.98 4.316 0.051648 0.051648 
4.98 4.32 0.05135 0.05135 
4.98 4.324 0.050968 0.050968 
4.98 4.328 0.050592 0.050592 
4.98 4.332 0.050236 0.050236 
4.98 4.336 0.049989 0.049989 
4.98 4.34 0.049899 0.049899 
4.98 4.344 0.049984 0.049984 
4.98 4.348 0.050169 0.050169 
4.98 4.352 0.050388 0.050388 
4.98 4.356 0.05057 0.05057 
4.98 4.36 0.05075 0.05075 
4.98 4.364 0.0509 0.0509 
4.98 4.368 0.051055 0.051055 
4.98 4.372 0.051176 0.051176 
4.98 4.376 0.051298 0.051298 
4.98 4.38 0.051453 0.051453 
4.98 4.384 0.051656 0.051656 
4.98 4.388 0.051886 0.051886 
4.98 4.392 0.052142 0.052142 
4.98 4.396 0.052397 0.052397 
4.98 4.4 0.052671 0.052671 
4.98 4.404 0.052936 0.052936 
4.98 4.408 0.053208 0.053208 
4.98 4.412 0.05346 0.05346 
4.98 4.416 0.053687 0.053687 
4.98 4.42 0.053877 0.053877 
4.98 4.424 0.054007 0.054007 
4.98 4.428 0.054082 0.054082 
4.98 4.432 0.054109 0.054109 
4.98 4.436 0.054102 0.054102 
4.98 4.44 0.054083 0.054083 
4.98 4.444 0.054105 0.054105 
4.98 4.448 0.054221 0.054221 
4.98 4.452 0.054433 0.054433 
4.98 4.456 0.054716 0.054716 
4.98 4.46 0.055059 0.055059 
4.98 4.464 0.055425 0.055425 
4.98 4.468 0.055777 0.055777 
4.98 4.472 0.056052 0.056052 
4.98 4.476 0.056214 0.056214 
4.98 4.48 0.056252 0.056252 
4.98 4.484 0.056197 0.056197 
4.98 4.488 0.056065 0.056065 
4.98 4.492 0.055875 0.055875 
4.98 4.496 0.05564 0.05564 
4.98 4.5 0.055414 0.055414 
4.98 4.504 0.055203 0.055203 
4.98 4.508 0.055011 0.055011 
4.98 4.512 0.054826 0.054826 
4.98 4.516 0.05467 0.05467 
4.98 4.52 0.054564 0.054564 
4.98 4.524 0.054489 0.054489 
4.98 4.528 0.054421 0.054421 
4.98 4.532 0.054367 0.054367 
4.98 4.536 0.054353 0.054353 
4.98 4.54 0.054406 0.054406 
4.98 4.544 0.054504 0.054504 
4.98 4.548 0.054595 0.054595 
4.98 4.552 0.054675 0.054675 
4.98 4.556 0.054737 0.054737 
4.98 4.56 0.054779 0.054779 
4.98 4.564 0.054742 0.054742 
4.98 4.568 0.054627 0.054627 
4.98 4.572 0.054446 0.054446 
4.98 4.576 0.054219 0.054219 
4.98 4.58 0.053906 0.053906 
4.98 4.584 0.053539 0.053539 
4.98 4.588 0.053093 0.053093 
4.98 4.592 0.052691 0.052691 
4.98 4.596 0.052367 0.052367 
4.98 4.6 0.052192 0.052192 
4.98 4.604 0.052129 0.052129 
4.98 4.608 0.052175 0.052175 
4.98 4.612 0.052288 0.052288 
4.98 4.616 0.052436 0.052436 
4.98 4.62 0.052572 0.052572 
4.98 4.624 0.052753 0.052753 
4.98 4.628 0.052971 0.052971 
4.98 4.632 0.053279 0.053279 
4.98 4.636 0.053638 0.053638 
4.98 4.64 0.054027 0.054027 
4.98 4.644 0.054336 0.054336 
4.98 4.648 0.054519 0.054519 
4.98 4.652 0.054562 0.054562 
4.98 4.656 0.054539 0.054539 
4.98 4.66 0.054471 0.054471 
4.98 4.664 0.054394 0.054394 
4.98 4.668 0.054286 0.054286 
4.98 4.672 0.054175 0.054175 
4.98 4.676 0.054053 0.054053 
4.98 4.68 0.053925 0.053925 
4.98 4.684 0.05376 0.05376 
4.98 4.688 0.053596 0.053596 
4.98 4.692 0.053483 0.053483 
4.98 4.696 0.053465 0.053465 
4.98 4.7 0.053479 0.053479 
4.98 4.704 0.053489 0.053489 
4.98 4.708 0.053451 0.053451 
4.98 4.712 0.0534 0.0534 
4.98 4.716 0.053302 0.053302 
4.98 4.72 0.053164 0.053164 
4.98 4.724 0.052991 0.052991 
4.98 4.728 0.052849 0.052849 
4.98 4.732 0.052786 0.052786 
4.98 4.736 0.052813 0.052813 
4.98 4.74 0.05289 0.05289 
4.98 4.744 0.052982 0.052982 
4.98 4.748 0.053039 0.053039 
4.98 4.752 0.053067 0.053067 
4.98 4.756 0.053051 0.053051 
4.98 4.76 0.053015 0.053015 
4.98 4.764 0.052992 0.052992 
4.98 4.768 0.053018 0.053018 
4.98 4.772 0.05311 0.05311 
4.98 4.776 0.053241 0.053241 
4.98 4.78 0.05339 0.05339 
4.98 4.784 0.05354 0.05354 
4.98 4.788 0.053713 0.053713 
4.98 4.792 0.05393 0.05393 
4.98 4.796 0.054185 0.054185 
4.98 4.8 0.05442 0.05442 
4.98 4.804 0.054614 0.054614 
4.98 4.808 0.054747 0.054747 
4.98 4.812 0.054818 0.054818 
4.98 4.816 0.054806 0.054806 
4.98 4.82 0.054742 0.054742 
4.98 4.824 0.054652 0.054652 
4.98 4.828 0.054598 0.054598 
4.98 4.832 0.054555 0.054555 
4.98 4.836 0.054514 0.054514 
4.98 4.84 0.054427 0.054427 
4.98 4.844 0.054335 0.054335 
4.98 4.848 0.054235 0.054235 
4.98 4.852 0.054129 0.054129 
4.98 4.856 0.053983 0.053983 
4.98 4.86 0.053791 0.053791 
4.98 4.864 0.053542 0.053542 
4.98 4.868 0.053263 0.053263 
4.98 4.872 0.052989 0.052989 
4.98 4.876 0.05278 0.05278 
4.98 4.88 0.052664 0.052664 
4.98 4.884 0.052676 0.052676 
4.98 4.888 0.05279 0.05279 
4.98 4.892 0.052984 0.052984 
4.98 4.896 0.053214 0.053214 
4.98 4.9 0.053447 0.053447 
4.98 4.904 0.053645 0.053645 
4.98 4.908 0.053805 0.053805 
4.98 4.912 0.053945 0.053945 
4.98 4.916 0.054052 0.054052 
4.98 4.92 0.054124 0.054124 
4.98 4.924 0.054164 0.054164 
4.98 4.928 0.054202 0.054202 
4.98 4.932 0.054246 0.054246 
4.98 4.936 0.054297 0.054297 
4.98 4.94 0.054361 0.054361 
4.98 4.944 0.054477 0.054477 
4.98 4.948 0.054684 0.054684 
4.98 4.952 0.054996 0.054996 
4.98 4.956 0.055366 0.055366 
4.98 4.96 0.055759 0.055759 
4.98 4.964 0.05614 0.05614 
4.98 4.968 0.05651 0.05651 
4.98 4.972 0.056846 0.056846 
4.98 4.976 0.057136 0.057136 
4.98 4.98 0.057371 0.057371 
4.98 4.984 0.057557 0.057557 
4.98 4.988 0.057688 0.057688 
4.98 4.992 0.057748 0.057748 
4.98 4.996 0.057716 0.057716 
4.98 5 0.0576 0.0576 
4.98 5.004 0.057469 0.057469 
4.98 5.008 0.057392 0.057392 
4.98 5.012 0.057414 0.057414 
4.98 5.016 0.057517 0.057517 
4.98 5.02 0.057696 0.057696 
4.98 5.024 0.057944 0.057944 
4.98 5.028 0.058248 0.058248 
4.98 5.032 0.058578 0.058578 
4.984 4.292 0.051234 0.051234 
4.984 4.296 0.051525 0.051525 
4.984 4.3 0.051792 0.051792 
4.984 4.304 0.05203 0.05203 
4.984 4.308 0.052201 0.052201 
4.984 4.312 0.052256 0.052256 
4.984 4.316 0.052166 0.052166 
4.984 4.32 0.051948 0.051948 
4.984 4.324 0.051647 0.051647 
4.984 4.328 0.051347 0.051347 
4.984 4.332 0.051055 0.051055 
4.984 4.336 0.050837 0.050837 
4.984 4.34 0.050707 0.050707 
4.984 4.344 0.050708 0.050708 
4.984 4.348 0.050782 0.050782 
4.984 4.352 0.050895 0.050895 
4.984 4.356 0.050972 0.050972 
4.984 4.36 0.051036 0.051036 
4.984 4.364 0.051042 0.051042 
4.984 4.368 0.051039 0.051039 
4.984 4.372 0.051006 0.051006 
4.984 4.376 0.051006 0.051006 
4.984 4.38 0.05107 0.05107 
4.984 4.384 0.051227 0.051227 
4.984 4.388 0.051457 0.051457 
4.984 4.392 0.051734 0.051734 
4.984 4.396 0.052024 0.052024 
4.984 4.4 0.052347 0.052347 
4.984 4.404 0.052692 0.052692 
4.984 4.408 0.053091 0.053091 
4.984 4.412 0.053519 0.053519 
4.984 4.416 0.053957 0.053957 
4.984 4.42 0.054342 0.054342 
4.984 4.424 0.054603 0.054603 
4.984 4.428 0.054692 0.054692 
4.984 4.432 0.054602 0.054602 
4.984 4.436 0.054376 0.054376 
4.984 4.44 0.054079 0.054079 
4.984 4.444 0.053796 0.053796 
4.984 4.448 0.05359 0.05359 
4.984 4.452 0.053488 0.053488 
4.984 4.456 0.053482 0.053482 
4.984 4.46 0.053565 0.053565 
4.984 4.464 0.053697 0.053697 
4.984 4.468 0.053838 0.053838 
4.984 4.472 0.053955 0.053955 
4.984 4.476 0.054033 0.054033 
4.984 4.48 0.054088 0.054088 
4.984 4.484 0.05411 0.05411 
4.984 4.488 0.054102 0.054102 
4.984 4.492 0.054078 0.054078 
4.984 4.496 0.054061 0.054061 
4.984 4.5 0.054086 0.054086 
4.984 4.504 0.054098 0.054098 
4.984 4.508 0.05406 0.05406 
4.984 4.512 0.053968 0.053968 
4.984 4.516 0.053849 0.053849 
4.984 4.52 0.053745 0.053745 
4.984 4.524 0.053618 0.053618 
4.984 4.528 0.053478 0.053478 
4.984 4.532 0.053366 0.053366 
4.984 4.536 0.053331 0.053331 
4.984 4.54 0.053406 0.053406 
4.984 4.544 0.053551 0.053551 
4.984 4.548 0.053717 0.053717 
4.984 4.552 0.053898 0.053898 
4.984 4.556 0.054082 0.054082 
4.984 4.56 0.054278 0.054278 
4.984 4.564 0.054409 0.054409 
4.984 4.568 0.054464 0.054464 
4.984 4.572 0.054432 0.054432 
4.984 4.576 0.054325 0.054325 
4.984 4.58 0.054117 0.054117 
4.984 4.584 0.053827 0.053827 
4.984 4.588 0.053449 0.053449 
4.984 4.592 0.053082 0.053082 
4.984 4.596 0.052794 0.052794 
4.984 4.6 0.05265 0.05265 
4.984 4.604 0.052635 0.052635 
4.984 4.608 0.052725 0.052725 
4.984 4.612 0.052872 0.052872 
4.984 4.616 0.053017 0.053017 
4.984 4.62 0.053104 0.053104 
4.984 4.624 0.053181 0.053181 
4.984 4.628 0.053274 0.053274 
4.984 4.632 0.053435 0.053435 
4.984 4.636 0.053663 0.053663 
4.984 4.64 0.053928 0.053928 
4.984 4.644 0.054168 0.054168 
4.984 4.648 0.054322 0.054322 
4.984 4.652 0.054393 0.054393 
4.984 4.656 0.054427 0.054427 
4.984 4.66 0.054443 0.054443 
4.984 4.664 0.054462 0.054462 
4.984 4.668 0.054464 0.054464 
4.984 4.672 0.054446 0.054446 
4.984 4.676 0.054392 0.054392 
4.984 4.68 0.054273 0.054273 
4.984 4.684 0.054074 0.054074 
4.984 4.688 0.053847 0.053847 
4.984 4.692 0.053688 0.053688 
4.984 4.696 0.053662 0.053662 
4.984 4.7 0.053699 0.053699 
4.984 4.704 0.053744 0.053744 
4.984 4.708 0.053736 0.053736 
4.984 4.712 0.053675 0.053675 
4.984 4.716 0.053513 0.053513 
4.984 4.72 0.05325 0.05325 
4.984 4.724 0.052935 0.052935 
4.984 4.728 0.052679 0.052679 
4.984 4.732 0.052554 0.052554 
4.984 4.736 0.052586 0.052586 
4.984 4.74 0.052702 0.052702 
4.984 4.744 0.052885 0.052885 
4.984 4.748 0.053065 0.053065 
4.984 4.752 0.053237 0.053237 
4.984 4.756 0.053375 0.053375 
4.984 4.76 0.053522 0.053522 
4.984 4.764 0.053698 0.053698 
4.984 4.768 0.053895 0.053895 
4.984 4.772 0.054071 0.054071 
4.984 4.776 0.054177 0.054177 
4.984 4.78 0.054176 0.054176 
4.984 4.784 0.054075 0.054075 
4.984 4.788 0.053917 0.053917 
4.984 4.792 0.053755 0.053755 
4.984 4.796 0.053647 0.053647 
4.984 4.8 0.053612 0.053612 
4.984 4.804 0.053665 0.053665 
4.984 4.808 0.053783 0.053783 
4.984 4.812 0.053912 0.053912 
4.984 4.816 0.054001 0.054001 
4.984 4.82 0.054018 0.054018 
4.984 4.824 0.053967 0.053967 
4.984 4.828 0.053891 0.053891 
4.984 4.832 0.053766 0.053766 
4.984 4.836 0.053624 0.053624 
4.984 4.84 0.053449 0.053449 
4.984 4.844 0.053301 0.053301 
4.984 4.848 0.053175 0.053175 
4.984 4.852 0.053072 0.053072 
4.984 4.856 0.052983 0.052983 
4.984 4.86 0.052901 0.052901 
4.984 4.864 0.05281 0.05281 
4.984 4.868 0.052702 0.052702 
4.984 4.872 0.052562 0.052562 
4.984 4.876 0.052419 0.052419 
4.984 4.88 0.052269 0.052269 
4.984 4.884 0.052156 0.052156 
4.984 4.888 0.052064 0.052064 
4.984 4.892 0.052033 0.052033 
4.984 4.896 0.052049 0.052049 
4.984 4.9 0.052128 0.052128 
4.984 4.904 0.052226 0.052226 
4.984 4.908 0.052349 0.052349 
4.984 4.912 0.052486 0.052486 
4.984 4.916 0.052622 0.052622 
4.984 4.92 0.052739 0.052739 
4.984 4.924 0.052843 0.052843 
4.984 4.928 0.052963 0.052963 
4.984 4.932 0.053107 0.053107 
4.984 4.936 0.053258 0.053258 
4.984 4.94 0.05342 0.05342 
4.984 4.944 0.053601 0.053601 
4.984 4.948 0.053823 0.053823 
4.984 4.952 0.054078 0.054078 
4.984 4.956 0.054338 0.054338 
4.984 4.96 0.054609 0.054609 
4.984 4.964 0.054887 0.054887 
4.984 4.968 0.055195 0.055195 
4.984 4.972 0.05549 0.05549 
4.984 4.976 0.055736 0.055736 
4.984 4.98 0.055897 0.055897 
4.984 4.984 0.056 0.056 
4.984 4.988 0.056095 0.056095 
4.984 4.992 0.056225 0.056225 
4.984 4.996 0.056378 0.056378 
4.984 5 0.056541 0.056541 
4.984 5.004 0.056715 0.056715 
4.984 5.008 0.05691 0.05691 
4.984 5.012 0.057104 0.057104 
4.984 5.016 0.057262 0.057262 
4.984 5.02 0.057397 0.057397 
4.984 5.024 0.057566 0.057566 
4.984 5.028 0.057823 0.057823 
4.984 5.032 0.058143 0.058143 
4.988 4.292 0.051822 0.051822 
4.988 4.296 0.051954 0.051954 
4.988 4.3 0.052052 0.052052 
4.988 4.304 0.052093 0.052093 
4.988 4.308 0.052041 0.052041 
4.988 4.312 0.051904 0.051904 
4.988 4.316 0.051736 0.051736 
4.988 4.32 0.051565 0.051565 
4.988 4.324 0.051422 0.051422 
4.988 4.328 0.05131 0.05131 
4.988 4.332 0.051217 0.051217 
4.988 4.336 0.051156 0.051156 
4.988 4.34 0.051112 0.051112 
4.988 4.344 0.051109 0.051109 
4.988 4.348 0.051125 0.051125 
4.988 4.352 0.051162 0.051162 
4.988 4.356 0.051222 0.051222 
4.988 4.36 0.051307 0.051307 
4.988 4.364 0.051386 0.051386 
4.988 4.368 0.051445 0.051445 
4.988 4.372 0.051481 0.051481 
4.988 4.376 0.051538 0.051538 
4.988 4.38 0.051632 0.051632 
4.988 4.384 0.051751 0.051751 
4.988 4.388 0.051871 0.051871 
4.988 4.392 0.051984 0.051984 
4.988 4.396 0.052105 0.052105 
4.988 4.4 0.052255 0.052255 
4.988 4.404 0.05245 0.05245 
4.988 4.408 0.052713 0.052713 
4.988 4.412 0.053028 0.053028 
4.988 4.416 0.053369 0.053369 
4.988 4.42 0.053661 0.053661 
4.988 4.424 0.053837 0.053837 
4.988 4.428 0.053856 0.053856 
4.988 4.432 0.053726 0.053726 
4.988 4.436 0.053505 0.053505 
4.988 4.44 0.053252 0.053252 
4.988 4.444 0.05305 0.05305 
4.988 4.448 0.052964 0.052964 
4.988 4.452 0.053011 0.053011 
4.988 4.456 0.053163 0.053163 
4.988 4.46 0.053388 0.053388 
4.988 4.464 0.053645 0.053645 
4.988 4.468 0.053908 0.053908 
4.988 4.472 0.054126 0.054126 
4.988 4.476 0.054284 0.054284 
4.988 4.48 0.054388 0.054388 
4.988 4.484 0.054448 0.054448 
4.988 4.488 0.054484 0.054484 
4.988 4.492 0.054481 0.054481 
4.988 4.496 0.054434 0.054434 
4.988 4.5 0.054352 0.054352 
4.988 4.504 0.05421 0.05421 
4.988 4.508 0.05402 0.05402 
4.988 4.512 0.053785 0.053785 
4.988 4.516 0.053545 0.053545 
4.988 4.52 0.053325 0.053325 
4.988 4.524 0.05309 0.05309 
4.988 4.528 0.052813 0.052813 
4.988 4.532 0.052479 0.052479 
4.988 4.536 0.052149 0.052149 
4.988 4.54 0.051906 0.051906 
4.988 4.544 0.051794 0.051794 
4.988 4.548 0.051828 0.051828 
4.988 4.552 0.052025 0.052025 
4.988 4.556 0.052382 0.052382 
4.988 4.56 0.052868 0.052868 
4.988 4.564 0.053366 0.053366 
4.988 4.568 0.053772 0.053772 
4.988 4.572 0.05402 0.05402 
4.988 4.576 0.054118 0.054118 
4.988 4.58 0.054087 0.054087 
4.988 4.584 0.053962 0.053962 
4.988 4.588 0.053744 0.053744 
4.988 4.592 0.053494 0.053494 
4.988 4.596 0.053269 0.053269 
4.988 4.6 0.053118 0.053118 
4.988 4.604 0.053043 0.053043 
4.988 4.608 0.053018 0.053018 
4.988 4.612 0.053026 0.053026 
4.988 4.616 0.053047 0.053047 
4.988 4.62 0.053073 0.053073 
4.988 4.624 0.053123 0.053123 
4.988 4.628 0.053198 0.053198 
4.988 4.632 0.053313 0.053313 
4.988 4.636 0.05348 0.05348 
4.988 4.64 0.053688 0.053688 
4.988 4.644 0.053894 0.053894 
4.988 4.648 0.054048 0.054048 
4.988 4.652 0.054166 0.054166 
4.988 4.656 0.054287 0.054287 
4.988 4.66 0.05444 0.05444 
4.988 4.664 0.054619 0.054619 
4.988 4.668 0.054771 0.054771 
4.988 4.672 0.05487 0.05487 
4.988 4.676 0.054889 0.054889 
4.988 4.68 0.054841 0.054841 
4.988 4.684 0.054705 0.054705 
4.988 4.688 0.054539 0.054539 
4.988 4.692 0.054397 0.054397 
4.988 4.696 0.054329 0.054329 
4.988 4.7 0.054311 0.054311 
4.988 4.704 0.054323 0.054323 
4.988 4.708 0.054326 0.054326 
4.988 4.712 0.054334 0.054334 
4.988 4.716 0.054345 0.054345 
4.988 4.72 0.054392 0.054392 
4.988 4.724 0.054448 0.054448 
4.988 4.728 0.054528 0.054528 
4.988 4.732 0.054619 0.054619 
4.988 4.736 0.054729 0.054729 
4.988 4.74 0.05482 0.05482 
4.988 4.744 0.054906 0.054906 
4.988 4.748 0.054978 0.054978 
4.988 4.752 0.055063 0.055063 
4.988 4.756 0.055195 0.055195 
4.988 4.76 0.055378 0.055378 
4.988 4.764 0.055564 0.055564 
4.988 4.768 0.055702 0.055702 
4.988 4.772 0.05577 0.05577 
4.988 4.776 0.055764 0.055764 
4.988 4.78 0.055663 0.055663 
4.988 4.784 0.055467 0.055467 
4.988 4.788 0.055207 0.055207 
4.988 4.792 0.0549 0.0549 
4.988 4.796 0.054573 0.054573 
4.988 4.8 0.054227 0.054227 
4.988 4.804 0.053879 0.053879 
4.988 4.808 0.053577 0.053577 
4.988 4.812 0.053316 0.053316 
4.988 4.816 0.0531 0.0531 
4.988 4.82 0.052924 0.052924 
4.988 4.824 0.052805 0.052805 
4.988 4.828 0.05277 0.05277 
4.988 4.832 0.052773 0.052773 
4.988 4.836 0.052815 0.052815 
4.988 4.84 0.052888 0.052888 
4.988 4.844 0.053003 0.053003 
4.988 4.848 0.053161 0.053161 
4.988 4.852 0.053289 0.053289 
4.988 4.856 0.053367 0.053367 
4.988 4.86 0.053384 0.053384 
4.988 4.864 0.053345 0.053345 
4.988 4.868 0.053255 0.053255 
4.988 4.872 0.053121 0.053121 
4.988 4.876 0.052999 0.052999 
4.988 4.88 0.052916 0.052916 
4.988 4.884 0.052864 0.052864 
4.988 4.888 0.052823 0.052823 
4.988 4.892 0.052784 0.052784 
4.988 4.896 0.05275 0.05275 
4.988 4.9 0.052738 0.052738 
4.988 4.904 0.052722 0.052722 
4.988 4.908 0.05269 0.05269 
4.988 4.912 0.052642 0.052642 
4.988 4.916 0.052594 0.052594 
4.988 4.92 0.052561 0.052561 
4.988 4.924 0.052542 0.052542 
4.988 4.928 0.05255 0.05255 
4.988 4.932 0.052596 0.052596 
4.988 4.936 0.052666 0.052666 
4.988 4.94 0.052761 0.052761 
4.988 4.944 0.052867 0.052867 
4.988 4.948 0.052983 0.052983 
4.988 4.952 0.053132 0.053132 
4.988 4.956 0.053322 0.053322 
4.988 4.96 0.053581 0.053581 
4.988 4.964 0.053864 0.053864 
4.988 4.968 0.054132 0.054132 
4.988 4.972 0.054322 0.054322 
4.988 4.976 0.054405 0.054405 
4.988 4.98 0.054392 0.054392 
4.988 4.984 0.054324 0.054324 
4.988 4.988 0.054287 0.054287 
4.988 4.992 0.054347 0.054347 
4.988 4.996 0.05452 0.05452 
4.988 5 0.054779 0.054779 
4.988 5.004 0.055059 0.055059 
4.988 5.008 0.055331 0.055331 
4.988 5.012 0.055572 0.055572 
4.988 5.016 0.055765 0.055765 
4.988 5.02 0.055939 0.055939 
4.988 5.024 0.056119 0.056119 
4.988 5.028 0.056358 0.056358 
4.988 5.032 0.056623 0.056623 
4.992 4.292 0.051893 0.051893 
4.992 4.296 0.051973 0.051973 
4.992 4.3 0.052048 0.052048 
4.992 4.304 0.052078 0.052078 
4.992 4.308 0.052054 0.052054 
4.992 4.312 0.051991 0.051991 
4.992 4.316 0.051942 0.051942 
4.992 4.32 0.051892 0.051892 
4.992 4.324 0.051854 0.051854 
4.992 4.328 0.051816 0.051816 
4.992 4.332 0.051758 0.051758 
4.992 4.336 0.05169 0.05169 
4.992 4.34 0.05158 0.05158 
4.992 4.344 0.051462 0.051462 
4.992 4.348 0.051363 0.051363 
4.992 4.352 0.051314 0.051314 
4.992 4.356 0.051357 0.051357 
4.992 4.36 0.051462 0.051462 
4.992 4.364 0.051596 0.051596 
4.992 4.368 0.051699 0.051699 
4.992 4.372 0.051752 0.051752 
4.992 4.376 0.0518 0.0518 
4.992 4.38 0.05185 0.05185 
4.992 4.384 0.05191 0.05191 
4.992 4.388 0.051978 0.051978 
4.992 4.392 0.05208 0.05208 
4.992 4.396 0.052244 0.052244 
4.992 4.4 0.052451 0.052451 
4.992 4.404 0.052693 0.052693 
4.992 4.408 0.052967 0.052967 
4.992 4.412 0.053275 0.053275 
4.992 4.416 0.053614 0.053614 
4.992 4.42 0.05394 0.05394 
4.992 4.424 0.054176 0.054176 
4.992 4.428 0.054264 0.054264 
4.992 4.432 0.054186 0.054186 
4.992 4.436 0.053991 0.053991 
4.992 4.44 0.053718 0.053718 
4.992 4.444 0.053457 0.053457 
4.992 4.448 0.053273 0.053273 
4.992 4.452 0.053206 0.053206 
4.992 4.456 0.053248 0.053248 
4.992 4.46 0.053369 0.053369 
4.992 4.464 0.05349 0.05349 
4.992 4.468 0.053581 0.053581 
4.992 4.472 0.053621 0.053621 
4.992 4.476 0.053644 0.053644 
4.992 4.48 0.05366 0.05366 
4.992 4.484 0.053694 0.053694 
4.992 4.488 0.053769 0.053769 
4.992 4.492 0.053869 0.053869 
4.992 4.496 0.053985 0.053985 
4.992 4.5 0.054104 0.054104 
4.992 4.504 0.054187 0.054187 
4.992 4.508 0.054238 0.054238 
4.992 4.512 0.054253 0.054253 
4.992 4.516 0.054262 0.054262 
4.992 4.52 0.05427 0.05427 
4.992 4.524 0.054241 0.054241 
4.992 4.528 0.05413 0.05413 
4.992 4.532 0.053911 0.053911 
4.992 4.536 0.053624 0.053624 
4.992 4.54 0.053349 0.053349 
4.992 4.544 0.053099 0.053099 
4.992 4.548 0.052911 0.052911 
4.992 4.552 0.052805 0.052805 
4.992 4.556 0.052842 0.052842 
4.992 4.56 0.053004 0.053004 
4.992 4.564 0.053229 0.053229 
4.992 4.568 0.053454 0.053454 
4.992 4.572 0.053682 0.053682 
4.992 4.576 0.053912 0.053912 
4.992 4.58 0.054149 0.054149 
4.992 4.584 0.054283 0.054283 
4.992 4.588 0.054274 0.054274 
4.992 4.592 0.05408 0.05408 
4.992 4.596 0.053779 0.053779 
4.992 4.6 0.053413 0.053413 
4.992 4.604 0.053061 0.053061 
4.992 4.608 0.052772 0.052772 
4.992 4.612 0.052609 0.052609 
4.992 4.616 0.05255 0.05255 
4.992 4.62 0.052562 0.052562 
4.992 4.624 0.052566 0.052566 
4.992 4.628 0.052537 0.052537 
4.992 4.632 0.052456 0.052456 
4.992 4.636 0.05238 0.05238 
4.992 4.64 0.052345 0.052345 
4.992 4.644 0.052386 0.052386 
4.992 4.648 0.05247 0.05247 
4.992 4.652 0.0526 0.0526 
4.992 4.656 0.052751 0.052751 
4.992 4.66 0.052945 0.052945 
4.992 4.664 0.053186 0.053186 
4.992 4.668 0.053458 0.053458 
4.992 4.672 0.053745 0.053745 
4.992 4.676 0.054013 0.054013 
4.992 4.68 0.054273 0.054273 
4.992 4.684 0.054504 0.054504 
4.992 4.688 0.054685 0.054685 
4.992 4.692 0.0548 0.0548 
4.992 4.696 0.054815 0.054815 
4.992 4.7 0.054752 0.054752 
4.992 4.704 0.054645 0.054645 
4.992 4.708 0.054518 0.054518 
4.992 4.712 0.054392 0.054392 
4.992 4.716 0.05428 0.05428 
4.992 4.72 0.054238 0.054238 
4.992 4.724 0.054255 0.054255 
4.992 4.728 0.05431 0.05431 
4.992 4.732 0.054371 0.054371 
4.992 4.736 0.054411 0.054411 
4.992 4.74 0.054442 0.054442 
4.992 4.744 0.054477 0.054477 
4.992 4.748 0.054525 0.054525 
4.992 4.752 0.054594 0.054594 
4.992 4.756 0.05472 0.05472 
4.992 4.76 0.054938 0.054938 
4.992 4.764 0.055224 0.055224 
4.992 4.768 0.055533 0.055533 
4.992 4.772 0.055812 0.055812 
4.992 4.776 0.056028 0.056028 
4.992 4.78 0.056163 0.056163 
4.992 4.784 0.056204 0.056204 
4.992 4.788 0.056181 0.056181 
4.992 4.792 0.056089 0.056089 
4.992 4.796 0.055962 0.055962 
4.992 4.8 0.055763 0.055763 
4.992 4.804 0.055454 0.055454 
4.992 4.808 0.055025 0.055025 
4.992 4.812 0.054467 0.054467 
4.992 4.816 0.053844 0.053844 
4.992 4.82 0.053238 0.053238 
4.992 4.824 0.052756 0.052756 
4.992 4.828 0.052495 0.052495 
4.992 4.832 0.052436 0.052436 
4.992 4.836 0.052547 0.052547 
4.992 4.84 0.052742 0.052742 
4.992 4.844 0.05295 0.05295 
4.992 4.848 0.053151 0.053151 
4.992 4.852 0.053276 0.053276 
4.992 4.856 0.053324 0.053324 
4.992 4.86 0.053291 0.053291 
4.992 4.864 0.053198 0.053198 
4.992 4.868 0.053065 0.053065 
4.992 4.872 0.052873 0.052873 
4.992 4.876 0.052652 0.052652 
4.992 4.88 0.052431 0.052431 
4.992 4.884 0.05224 0.05224 
4.992 4.888 0.052131 0.052131 
4.992 4.892 0.052116 0.052116 
4.992 4.896 0.052222 0.052222 
4.992 4.9 0.052436 0.052436 
4.992 4.904 0.052719 0.052719 
4.992 4.908 0.053012 0.053012 
4.992 4.912 0.05325 0.05325 
4.992 4.916 0.0534 0.0534 
4.992 4.92 0.053465 0.053465 
4.992 4.924 0.053465 0.053465 
4.992 4.928 0.053436 0.053436 
4.992 4.932 0.053401 0.053401 
4.992 4.936 0.053378 0.053378 
4.992 4.94 0.053373 0.053373 
4.992 4.944 0.053383 0.053383 
4.992 4.948 0.053401 0.053401 
4.992 4.952 0.053436 0.053436 
4.992 4.956 0.05352 0.05352 
4.992 4.96 0.053697 0.053697 
4.992 4.964 0.053961 0.053961 
4.992 4.968 0.054261 0.054261 
4.992 4.972 0.054513 0.054513 
4.992 4.976 0.054657 0.054657 
4.992 4.98 0.05467 0.05467 
4.992 4.984 0.054569 0.054569 
4.992 4.988 0.054454 0.054454 
4.992 4.992 0.05441 0.05441 
4.992 4.996 0.054513 0.054513 
4.992 5 0.054728 0.054728 
4.992 5.004 0.054999 0.054999 
4.992 5.008 0.05527 0.05527 
4.992 5.012 0.055509 0.055509 
4.992 5.016 0.055694 0.055694 
4.992 5.02 0.055831 0.055831 
4.992 5.024 0.055953 0.055953 
4.992 5.028 0.056139 0.056139 
4.992 5.032 0.05637 0.05637 
4.996 4.292 0.052063 0.052063 
4.996 4.296 0.051968 0.051968 
4.996 4.3 0.051874 0.051874 
4.996 4.304 0.051781 0.051781 
4.996 4.308 0.051683 0.051683 
4.996 4.312 0.051589 0.051589 
4.996 4.316 0.051522 0.051522 
4.996 4.32 0.051454 0.051454 
4.996 4.324 0.051411 0.051411 
4.996 4.328 0.051372 0.051372 
4.996 4.332 0.051355 0.051355 
4.996 4.336 0.051356 0.051356 
4.996 4.34 0.051384 0.051384 
4.996 4.344 0.051441 0.051441 
4.996 4.348 0.051528 0.051528 
4.996 4.352 0.051638 0.051638 
4.996 4.356 0.051812 0.051812 
4.996 4.36 0.052016 0.052016 
4.996 4.364 0.05225 0.05225 
4.996 4.368 0.052431 0.052431 
4.996 4.372 0.05256 0.05256 
4.996 4.376 0.052629 0.052629 
4.996 4.38 0.052646 0.052646 
4.996 4.384 0.052584 0.052584 
4.996 4.388 0.05245 0.05245 
4.996 4.392 0.052299 0.052299 
4.996 4.396 0.052207 0.052207 
4.996 4.4 0.052183 0.052183 
4.996 4.404 0.052254 0.052254 
4.996 4.408 0.052399 0.052399 
4.996 4.412 0.052615 0.052615 
4.996 4.416 0.052867 0.052867 
4.996 4.42 0.053125 0.053125 
4.996 4.424 0.053346 0.053346 
4.996 4.428 0.053517 0.053517 
4.996 4.432 0.053648 0.053648 
4.996 4.436 0.053776 0.053776 
4.996 4.44 0.053887 0.053887 
4.996 4.444 0.05402 0.05402 
4.996 4.448 0.054186 0.054186 
4.996 4.452 0.054391 0.054391 
4.996 4.456 0.054613 0.054613 
4.996 4.46 0.054824 0.054824 
4.996 4.464 0.054967 0.054967 
4.996 4.468 0.055024 0.055024 
4.996 4.472 0.054973 0.054973 
4.996 4.476 0.054845 0.054845 
4.996 4.48 0.054633 0.054633 
4.996 4.484 0.054383 0.054383 
4.996 4.488 0.054141 0.054141 
4.996 4.492 0.053935 0.053935 
4.996 4.496 0.053766 0.053766 
4.996 4.5 0.05364 0.05364 
4.996 4.504 0.053539 0.053539 
4.996 4.508 0.053493 0.053493 
4.996 4.512 0.053477 0.053477 
4.996 4.516 0.053507 0.053507 
4.996 4.52 0.053558 0.053558 
4.996 4.524 0.053606 0.053606 
4.996 4.528 0.053594 0.053594 
4.996 4.532 0.053487 0.053487 
4.996 4.536 0.053293 0.053293 
4.996 4.54 0.053088 0.053088 
4.996 4.544 0.052856 0.052856 
4.996 4.548 0.052654 0.052654 
4.996 4.552 0.052493 0.052493 
4.996 4.556 0.052475 0.052475 
4.996 4.56 0.052582 0.052582 
4.996 4.564 0.05276 0.05276 
4.996 4.568 0.052936 0.052936 
4.996 4.572 0.053119 0.053119 
4.996 4.576 0.053314 0.053314 
4.996 4.58 0.05353 0.05353 
4.996 4.584 0.05363 0.05363 
4.996 4.588 0.053615 0.053615 
4.996 4.592 0.053443 0.053443 
4.996 4.596 0.053204 0.053204 
4.996 4.6 0.05291 0.05291 
4.996 4.604 0.05261 0.05261 
4.996 4.608 0.052344 0.052344 
4.996 4.612 0.052173 0.052173 
4.996 4.616 0.052104 0.052104 
4.996 4.62 0.052116 0.052116 
4.996 4.624 0.052113 0.052113 
4.996 4.628 0.052073 0.052073 
4.996 4.632 0.051972 0.051972 
4.996 4.636 0.051875 0.051875 
4.996 4.64 0.051811 0.051811 
4.996 4.644 0.051797 0.051797 
4.996 4.648 0.051802 0.051802 
4.996 4.652 0.05182 0.05182 
4.996 4.656 0.051836 0.051836 
4.996 4.66 0.051867 0.051867 
4.996 4.664 0.051922 0.051922 
4.996 4.668 0.052009 0.052009 
4.996 4.672 0.052139 0.052139 
4.996 4.676 0.052293 0.052293 
4.996 4.68 0.052488 0.052488 
4.996 4.684 0.052698 0.052698 
4.996 4.688 0.052897 0.052897 
4.996 4.692 0.053046 0.053046 
4.996 4.696 0.05311 0.05311 
4.996 4.7 0.053128 0.053128 
4.996 4.704 0.053144 0.053144 
4.996 4.708 0.053174 0.053174 
4.996 4.712 0.053218 0.053218 
4.996 4.716 0.053271 0.053271 
4.996 4.72 0.053359 0.053359 
4.996 4.724 0.053449 0.053449 
4.996 4.728 0.053528 0.053528 
4.996 4.732 0.053553 0.053553 
4.996 4.736 0.053511 0.053511 
4.996 4.74 0.053416 0.053416 
4.996 4.744 0.053268 0.053268 
4.996 4.748 0.053082 0.053082 
4.996 4.752 0.052875 0.052875 
4.996 4.756 0.052742 0.052742 
4.996 4.76 0.052767 0.052767 
4.996 4.764 0.052976 0.052976 
4.996 4.768 0.053385 0.053385 
4.996 4.772 0.053943 0.053943 
4.996 4.776 0.05459 0.05459 
4.996 4.78 0.055223 0.055223 
4.996 4.784 0.05576 0.05576 
4.996 4.788 0.056178 0.056178 
4.996 4.792 0.056471 0.056471 
4.996 4.796 0.056678 0.056678 
4.996 4.8 0.056764 0.056764 
4.996 4.804 0.056637 0.056637 
4.996 4.808 0.056296 0.056296 
4.996 4.812 0.055704 0.055704 
4.996 4.816 0.054953 0.054953 
4.996 4.82 0.054101 0.054101 
4.996 4.824 0.053303 0.053303 
4.996 4.828 0.052706 0.052706 
4.996 4.832 0.052382 0.052382 
4.996 4.836 0.052346 0.052346 
4.996 4.84 0.052519 0.052519 
4.996 4.844 0.052773 0.052773 
4.996 4.848 0.053073 0.053073 
4.996 4.852 0.053305 0.053305 
4.996 4.856 0.053473 0.053473 
4.996 4.86 0.053518 0.053518 
4.996 4.864 0.053481 0.053481 
4.996 4.868 0.053392 0.053392 
4.996 4.872 0.053261 0.053261 
4.996 4.876 0.053105 0.053105 
4.996 4.88 0.052916 0.052916 
4.996 4.884 0.052702 0.052702 
4.996 4.888 0.05252 0.05252 
4.996 4.892 0.052397 0.052397 
4.996 4.896 0.052372 0.052372 
4.996 4.9 0.05243 0.05243 
4.996 4.904 0.05257 0.05257 
4.996 4.908 0.052752 0.052752 
4.996 4.912 0.052921 0.052921 
4.996 4.916 0.05304 0.05304 
4.996 4.92 0.053118 0.053118 
4.996 4.924 0.053191 0.053191 
4.996 4.928 0.05327 0.05327 
4.996 4.932 0.053358 0.053358 
4.996 4.936 0.053452 0.053452 
4.996 4.94 0.05355 0.05355 
4.996 4.944 0.053638 0.053638 
4.996 4.948 0.053712 0.053712 
4.996 4.952 0.053772 0.053772 
4.996 4.956 0.053875 0.053875 
4.996 4.96 0.054043 0.054043 
4.996 4.964 0.054266 0.054266 
4.996 4.968 0.054453 0.054453 
4.996 4.972 0.054553 0.054553 
4.996 4.976 0.054544 0.054544 
4.996 4.98 0.054432 0.054432 
4.996 4.984 0.054215 0.054215 
4.996 4.988 0.053963 0.053963 
4.996 4.992 0.053762 0.053762 
4.996 4.996 0.053724 0.053724 
4.996 5 0.053828 0.053828 
4.996 5.004 0.054034 0.054034 
4.996 5.008 0.054281 0.054281 
4.996 5.012 0.054575 0.054575 
4.996 5.016 0.054903 0.054903 
4.996 5.02 0.055249 0.055249 
4.996 5.024 0.055595 0.055595 
4.996 5.028 0.055974 0.055974 
4.996 5.032 0.056382 0.056382 
5 4.292 0.050246 0.050246 
5 4.296 0.050413 0.050413 
5 4.3 0.050581 0.050581 
5 4.304 0.05074 0.05074 
5 4.308 0.050921 0.050921 
5 4.312 0.051081 0.051081 
5 4.316 0.051228 0.051228 
5 4.32 0.05128 0.05128 
5 4.324 0.051257 0.051257 
5 4.328 0.05111 0.05111 
5 4.332 0.050888 0.050888 
5 4.336 0.050614 0.050614 
5 4.34 0.050372 0.050372 
5 4.344 0.050203 0.050203 
5 4.348 0.050146 0.050146 
5 4.352 0.05017 0.05017 
5 4.356 0.050298 0.050298 
5 4.36 0.050509 0.050509 
5 4.364 0.050823 0.050823 
5 4.368 0.051167 0.051167 
5 4.372 0.051537 0.051537 
5 4.376 0.051895 0.051895 
5 4.38 0.052255 0.052255 
5 4.384 0.052582 0.052582 
5 4.388 0.052854 0.052854 
5 4.392 0.053082 0.053082 
5 4.396 0.053278 0.053278 
5 4.4 0.053449 0.053449 
5 4.404 0.053612 0.053612 
5 4.408 0.053759 0.053759 
5 4.412 0.053919 0.053919 
5 4.416 0.054078 0.054078 
5 4.42 0.054251 0.054251 
5 4.424 0.054395 0.054395 
5 4.428 0.054507 0.054507 
5 4.432 0.054584 0.054584 
5 4.436 0.054636 0.054636 
5 4.44 0.054654 0.054654 
5 4.444 0.054669 0.054669 
5 4.448 0.05468 0.05468 
5 4.452 0.054711 0.054711 
5 4.456 0.054735 0.054735 
5 4.46 0.05477 0.05477 
5 4.464 0.054762 0.054762 
5 4.468 0.054707 0.054707 
5 4.472 0.054588 0.054588 
5 4.476 0.054424 0.054424 
5 4.48 0.054214 0.054214 
5 4.484 0.054009 0.054009 
5 4.488 0.053852 0.053852 
5 4.492 0.053785 0.053785 
5 4.496 0.053781 0.053781 
5 4.5 0.053826 0.053826 
5 4.504 0.053864 0.053864 
5 4.508 0.053877 0.053877 
5 4.512 0.053836 0.053836 
5 4.516 0.053771 0.053771 
5 4.52 0.053711 0.053711 
5 4.524 0.053685 0.053685 
5 4.528 0.053678 0.053678 
5 4.532 0.053689 0.053689 
5 4.536 0.053679 0.053679 
5 4.54 0.053682 0.053682 
5 4.544 0.053653 0.053653 
5 4.548 0.053629 0.053629 
5 4.552 0.053606 0.053606 
5 4.556 0.053652 0.053652 
5 4.56 0.053741 0.053741 
5 4.564 0.053812 0.053812 
5 4.568 0.053818 0.053818 
5 4.572 0.053795 0.053795 
5 4.576 0.053759 0.053759 
5 4.58 0.053734 0.053734 
5 4.584 0.053607 0.053607 
5 4.588 0.05338 0.05338 
5 4.592 0.053014 0.053014 
5 4.596 0.052599 0.052599 
5 4.6 0.05217 0.05217 
5 4.604 0.051807 0.051807 
5 4.608 0.051557 0.051557 
5 4.612 0.051475 0.051475 
5 4.616 0.051556 0.051556 
5 4.62 0.051748 0.051748 
5 4.624 0.051957 0.051957 
5 4.628 0.052136 0.052136 
5 4.632 0.052247 0.052247 
5 4.636 0.052325 0.052325 
5 4.64 0.052388 0.052388 
5 4.644 0.052452 0.052452 
5 4.648 0.052483 0.052483 
5 4.652 0.052473 0.052473 
5 4.656 0.052425 0.052425 
5 4.66 0.052356 0.052356 
5 4.664 0.052291 0.052291 
5 4.668 0.052257 0.052257 
5 4.672 0.052272 0.052272 
5 4.676 0.05236 0.05236 
5 4.68 0.052523 0.052523 
5 4.684 0.052774 0.052774 
5 4.688 0.0531 0.0531 
5 4.692 0.05348 0.05348 
5 4.696 0.053861 0.053861 
5 4.7 0.054199 0.054199 
5 4.704 0.054476 0.054476 
5 4.708 0.054681 0.054681 
5 4.712 0.054788 0.054788 
5 4.716 0.054801 0.054801 
5 4.72 0.054741 0.054741 
5 4.724 0.054649 0.054649 
5 4.728 0.054533 0.054533 
5 4.732 0.05436 0.05436 
5 4.736 0.054086 0.054086 
5 4.74 0.053735 0.053735 
5 4.744 0.05335 0.05335 
5 4.748 0.05296 0.05296 
5 4.752 0.052586 0.052586 
5 4.756 0.052309 0.052309 
5 4.76 0.052222 0.052222 
5 4.764 0.052347 0.052347 
5 4.768 0.052643 0.052643 
5 4.772 0.053013 0.053013 
5 4.776 0.053408 0.053408 
5 4.78 0.053796 0.053796 
5 4.784 0.054153 0.054153 
5 4.788 0.054464 0.054464 
5 4.792 0.054747 0.054747 
5 4.796 0.055059 0.055059 
5 4.8 0.055394 0.055394 
5 4.804 0.055642 0.055642 
5 4.808 0.055762 0.055762 
5 4.812 0.055715 0.055715 
5 4.816 0.05556 0.05556 
5 4.82 0.055299 0.055299 
5 4.824 0.054975 0.054975 
5 4.828 0.054642 0.054642 
5 4.832 0.054345 0.054345 
5 4.836 0.0541 0.0541 
5 4.84 0.053851 0.053851 
5 4.844 0.053536 0.053536 
5 4.848 0.053203 0.053203 
5 4.852 0.052892 0.052892 
5 4.856 0.052671 0.052671 
5 4.86 0.052532 0.052532 
5 4.864 0.052479 0.052479 
5 4.868 0.052499 0.052499 
5 4.872 0.052545 0.052545 
5 4.876 0.052562 0.052562 
5 4.88 0.052503 0.052503 
5 4.884 0.05237 0.05237 
5 4.888 0.052221 0.052221 
5 4.892 0.0521 0.0521 
5 4.896 0.052013 0.052013 
5 4.9 0.051953 0.051953 
5 4.904 0.051915 0.051915 
5 4.908 0.051902 0.051902 
5 4.912 0.051907 0.051907 
5 4.916 0.051928 0.051928 
5 4.92 0.051988 0.051988 
5 4.924 0.052116 0.052116 
5 4.928 0.052323 0.052323 
5 4.932 0.052567 0.052567 
5 4.936 0.052797 0.052797 
5 4.94 0.053007 0.053007 
5 4.944 0.053206 0.053206 
5 4.948 0.053423 0.053423 
5 4.952 0.053672 0.053672 
5 4.956 0.053978 0.053978 
5 4.96 0.054349 0.054349 
5 4.964 0.054757 0.054757 
5 4.968 0.055148 0.055148 
5 4.972 0.055469 0.055469 
5 4.976 0.055712 0.055712 
5 4.98 0.055892 0.055892 
5 4.984 0.05602 0.05602 
5 4.988 0.056116 0.056116 
5 4.992 0.05621 0.05621 
5 4.996 0.05633 0.05633 
5 5 0.056448 0.056448 
5 5.004 0.056515 0.056515 
5 5.008 0.056513 0.056513 
5 5.012 0.056474 0.056474 
5 5.016 0.05646 0.05646 
5 5.02 0.056498 0.056498 
5 5.024 0.056614 0.056614 
5 5.028 0.056824 0.056824 
5 5.032 0.057114 0.057114 
5.004 4.292 0.049604 0.049604 
5.004 4.296 0.049757 0.049757 
5.004 4.3 0.049915 0.049915 
5.004 4.304 0.050056 0.050056 
5.004 4.308 0.050226 0.050226 
5.004 4.312 0.050397 0.050397 
5.004 4.316 0.050592 0.050592 
5.004 4.32 0.050756 0.050756 
5.004 4.324 0.050892 0.050892 
5.004 4.328 0.050946 0.050946 
5.004 4.332 0.050943 0.050943 
5.004 4.336 0.050874 0.050874 
5.004 4.34 0.050804 0.050804 
5.004 4.344 0.050733 0.050733 
5.004 4.348 0.050709 0.050709 
5.004 4.352 0.050708 0.050708 
5.004 4.356 0.050761 0.050761 
5.004 4.36 0.050856 0.050856 
5.004 4.364 0.05102 0.05102 
5.004 4.368 0.05121 0.05121 
5.004 4.372 0.051438 0.051438 
5.004 4.376 0.051674 0.051674 
5.004 4.38 0.051938 0.051938 
5.004 4.384 0.0522 0.0522 
5.004 4.388 0.052451 0.052451 
5.004 4.392 0.052683 0.052683 
5.004 4.396 0.052891 0.052891 
5.004 4.4 0.053069 0.053069 
5.004 4.404 0.053238 0.053238 
5.004 4.408 0.053389 0.053389 
5.004 4.412 0.05353 0.05353 
5.004 4.416 0.05364 0.05364 
5.004 4.42 0.053738 0.053738 
5.004 4.424 0.053828 0.053828 
5.004 4.428 0.053921 0.053921 
5.004 4.432 0.054031 0.054031 
5.004 4.436 0.054148 0.054148 
5.004 4.44 0.054258 0.054258 
5.004 4.444 0.054369 0.054369 
5.004 4.448 0.05446 0.05446 
5.004 4.452 0.054527 0.054527 
5.004 4.456 0.054549 0.054549 
5.004 4.46 0.054559 0.054559 
5.004 4.464 0.054555 0.054555 
5.004 4.468 0.054531 0.054531 
5.004 4.472 0.054453 0.054453 
5.004 4.476 0.054306 0.054306 
5.004 4.48 0.05409 0.05409 
5.004 4.484 0.053849 0.053849 
5.004 4.488 0.053634 0.053634 
5.004 4.492 0.053489 0.053489 
5.004 4.496 0.053418 0.053418 
5.004 4.5 0.053421 0.053421 
5.004 4.504 0.05345 0.05345 
5.004 4.508 0.053467 0.053467 
5.004 4.512 0.053451 0.053451 
5.004 4.516 0.053425 0.053425 
5.004 4.52 0.053405 0.053405 
5.004 4.524 0.053395 0.053395 
5.004 4.528 0.053371 0.053371 
5.004 4.532 0.05334 0.05334 
5.004 4.536 0.053266 0.053266 
5.004 4.54 0.053159 0.053159 
5.004 4.544 0.052987 0.052987 
5.004 4.548 0.052802 0.052802 
5.004 4.552 0.052655 0.052655 
5.004 4.556 0.052588 0.052588 
5.004 4.56 0.052593 0.052593 
5.004 4.564 0.052631 0.052631 
5.004 4.568 0.052681 0.052681 
5.004 4.572 0.052772 0.052772 
5.004 4.576 0.052894 0.052894 
5.004 4.58 0.053071 0.053071 
5.004 4.584 0.053239 0.053239 
5.004 4.588 0.053409 0.053409 
5.004 4.592 0.05354 0.05354 
5.004 4.596 0.053627 0.053627 
5.004 4.6 0.053664 0.053664 
5.004 4.604 0.053653 0.053653 
5.004 4.608 0.053599 0.053599 
5.004 4.612 0.053514 0.053514 
5.004 4.616 0.053415 0.053415 
5.004 4.62 0.053311 0.053311 
5.004 4.624 0.053182 0.053182 
5.004 4.628 0.053048 0.053048 
5.004 4.632 0.052931 0.052931 
5.004 4.636 0.05286 0.05286 
5.004 4.64 0.052832 0.052832 
5.004 4.644 0.052852 0.052852 
5.004 4.648 0.052918 0.052918 
5.004 4.652 0.053014 0.053014 
5.004 4.656 0.053115 0.053115 
5.004 4.66 0.053187 0.053187 
5.004 4.664 0.05324 0.05324 
5.004 4.668 0.053279 0.053279 
5.004 4.672 0.053284 0.053284 
5.004 4.676 0.053226 0.053226 
5.004 4.68 0.053085 0.053085 
5.004 4.684 0.052912 0.052912 
5.004 4.688 0.052773 0.052773 
5.004 4.692 0.052686 0.052686 
5.004 4.696 0.05267 0.05267 
5.004 4.7 0.052718 0.052718 
5.004 4.704 0.052866 0.052866 
5.004 4.708 0.05309 0.05309 
5.004 4.712 0.053332 0.053332 
5.004 4.716 0.053545 0.053545 
5.004 4.72 0.05371 0.05371 
5.004 4.724 0.05386 0.05386 
5.004 4.728 0.054008 0.054008 
5.004 4.732 0.054109 0.054109 
5.004 4.736 0.054119 0.054119 
5.004 4.74 0.054019 0.054019 
5.004 4.744 0.053853 0.053853 
5.004 4.748 0.053644 0.053644 
5.004 4.752 0.053396 0.053396 
5.004 4.756 0.053127 0.053127 
5.004 4.76 0.052896 0.052896 
5.004 4.764 0.052749 0.052749 
5.004 4.768 0.052677 0.052677 
5.004 4.772 0.052627 0.052627 
5.004 4.776 0.052581 0.052581 
5.004 4.78 0.052547 0.052547 
5.004 4.784 0.052541 0.052541 
5.004 4.788 0.052529 0.052529 
5.004 4.792 0.052507 0.052507 
5.004 4.796 0.052499 0.052499 
5.004 4.8 0.052552 0.052552 
5.004 4.804 0.052667 0.052667 
5.004 4.808 0.052843 0.052843 
5.004 4.812 0.053053 0.053053 
5.004 4.816 0.053328 0.053328 
5.004 4.82 0.053612 0.053612 
5.004 4.824 0.053849 0.053849 
5.004 4.828 0.053951 0.053951 
5.004 4.832 0.053908 0.053908 
5.004 4.836 0.053743 0.053743 
5.004 4.84 0.05346 0.05346 
5.004 4.844 0.053093 0.053093 
5.004 4.848 0.052718 0.052718 
5.004 4.852 0.052421 0.052421 
5.004 4.856 0.052286 0.052286 
5.004 4.86 0.052287 0.052287 
5.004 4.864 0.052394 0.052394 
5.004 4.868 0.052538 0.052538 
5.004 4.872 0.052703 0.052703 
5.004 4.876 0.052876 0.052876 
5.004 4.88 0.053029 0.053029 
5.004 4.884 0.053143 0.053143 
5.004 4.888 0.053221 0.053221 
5.004 4.892 0.053281 0.053281 
5.004 4.896 0.053312 0.053312 
5.004 4.9 0.053292 0.053292 
5.004 4.904 0.053196 0.053196 
5.004 4.908 0.053005 0.053005 
5.004 4.912 0.052758 0.052758 
5.004 4.916 0.05247 0.05247 
5.004 4.92 0.052177 0.052177 
5.004 4.924 0.051874 0.051874 
5.004 4.928 0.051613 0.051613 
5.004 4.932 0.051419 0.051419 
5.004 4.936 0.051312 0.051312 
5.004 4.94 0.051297 0.051297 
5.004 4.944 0.051402 0.051402 
5.004 4.948 0.05165 0.05165 
5.004 4.952 0.052078 0.052078 
5.004 4.956 0.052648 0.052648 
5.004 4.96 0.053322 0.053322 
5.004 4.964 0.054018 0.054018 
5.004 4.968 0.054708 0.054708 
5.004 4.972 0.05533 0.05533 
5.004 4.976 0.055875 0.055875 
5.004 4.98 0.05634 0.05634 
5.004 4.984 0.056763 0.056763 
5.004 4.988 0.057143 0.057143 
5.004 4.992 0.057466 0.057466 
5.004 4.996 0.057705 0.057705 
5.004 5 0.057836 0.057836 
5.004 5.004 0.057836 0.057836 
5.004 5.008 0.057721 0.057721 
5.004 5.012 0.057527 0.057527 
5.004 5.016 0.057348 0.057348 
5.004 5.02 0.057214 0.057214 
5.004 5.024 0.057136 0.057136 
5.004 5.028 0.057062 0.057062 
5.004 5.032 0.056958 0.056958 
5.008 4.292 0.049194 0.049194 
5.008 4.296 0.049344 0.049344 
5.008 4.3 0.049491 0.049491 
5.008 4.304 0.049598 0.049598 
5.008 4.308 0.049697 0.049697 
5.008 4.312 0.049774 0.049774 
5.008 4.316 0.049871 0.049871 
